ply
format ascii 1.0
comment Created by Open3D
element vertex 3061
property double x
property double y
property double z
end_header
79 106 1.66868
80 106 1.04872
81 106 0.38771
82 106 -0.354519
83 106 -1.20325
84 106 -2.167
85 106 -3.23528
86 106 -4.38409
87 106 -5.66683
88 106 -7.08764
89 106 -8.89245
90 106 -24.4522
91 106 -24.4522
92 106 -24.4522
93 106 -24.4522
94 106 -24.4522
95 106 -24.4522
96 106 -24.4522
97 106 -24.4522
98 106 -24.4522
99 106 -24.4522
100 106 -24.4522
101 106 -24.4522
102 106 -24.4522
103 106 -24.4522
104 106 -24.4522
105 106 -24.4522
106 106 -24.4522
107 106 -24.4522
108 106 -24.4522
109 106 -24.4522
110 106 -24.4522
111 106 -24.4522
112 106 -24.4522
113 106 -24.4522
114 106 -24.4522
115 106 -24.4522
116 106 -24.4522
117 106 -24.4522
118 106 -24.4522
119 106 -24.4522
0 107 -24.4522
1 107 -24.4522
2 107 -24.4522
3 107 -24.4522
4 107 -24.4522
5 107 -24.4522
6 107 -24.4522
7 107 -24.4522
8 107 -24.4522
9 107 -24.4522
10 107 -24.4522
11 107 -24.4522
12 107 -24.4522
13 107 -24.4522
14 107 -24.4522
15 107 -24.4522
16 107 -24.4522
17 107 -24.4522
18 107 -24.4522
19 107 -24.4522
20 107 -24.4522
21 107 -24.4522
22 107 -24.4522
23 107 -24.4522
24 107 -24.4522
25 107 -24.4522
26 107 -24.4522
27 107 -24.4522
28 107 -24.4522
29 107 -24.4522
30 107 -24.4522
31 107 -24.4522
32 107 -24.4522
33 107 -24.4522
34 107 -24.4522
35 107 -24.4522
36 107 -24.4522
37 107 -16.374
38 107 -14.1951
39 107 -11.1129
40 107 -7.4787
41 107 -4.10255
42 107 -1.90932
43 107 -0.235575
44 107 1.0585
45 107 2.07727
46 107 2.85736
47 107 3.45452
48 107 3.88592
49 107 4.18499
50 107 4.41535
51 107 4.47782
52 107 4.54871
53 107 4.61383
54 107 4.63925
55 107 4.62382
56 107 4.58457
57 107 4.51792
58 107 4.4442
59 107 4.37113
60 107 4.30034
61 107 4.24256
62 107 4.18477
63 107 4.12358
64 107 4.07154
65 107 4.03873
66 107 4.003
67 107 3.97831
68 107 3.96067
69 107 3.92153
70 107 3.89048
71 107 3.82387
72 107 3.73005
73 107 3.61545
74 107 3.50121
75 107 3.35324
76 107 3.17999
77 107 2.91788
78 107 2.54729
79 107 2.07538
80 107 1.4612
81 107 0.815262
82 107 0.121983
83 107 -0.675358
84 107 -1.58483
85 107 -2.60526
86 107 -3.70065
87 107 -4.92751
88 107 -6.26894
89 107 -7.78995
90 107 -8.60657
91 107 -24.4522
92 107 -24.4522
93 107 -24.4522
94 107 -24.4522
95 107 -24.4522
96 107 -24.4522
97 107 -24.4522
98 107 -24.4522
99 107 -24.4522
100 107 -24.4522
101 107 -24.4522
102 107 -24.4522
103 107 -24.4522
104 107 -24.4522
105 107 -24.4522
106 107 -24.4522
107 107 -24.4522
108 107 -24.4522
109 107 -24.4522
110 107 -24.4522
111 107 -24.4522
112 107 -24.4522
113 107 -24.4522
114 107 -24.4522
115 107 -24.4522
116 107 -24.4522
117 107 -24.4522
118 107 -24.4522
119 107 -24.4522
0 108 -24.4522
1 108 -24.4522
2 108 -24.4522
3 108 -24.4522
4 108 -24.4522
5 108 -24.4522
6 108 -24.4522
7 108 -24.4522
8 108 -24.4522
9 108 -24.4522
10 108 -24.4522
11 108 -24.4522
12 108 -24.4522
13 108 -24.4522
14 108 -24.4522
15 108 -24.4522
16 108 -24.4522
17 108 -24.4522
18 108 -24.4522
19 108 -24.4522
20 108 -24.4522
21 108 -24.4522
22 108 -24.4522
23 108 -24.4522
24 108 -24.4522
25 108 -24.4522
26 108 -24.4522
27 108 -24.4522
28 108 -24.4522
29 108 -24.4522
30 108 -24.4522
31 108 -24.4522
32 108 -24.4522
33 108 -24.4522
34 108 -24.4522
35 108 -24.4522
36 108 -24.4522
37 108 -24.4522
38 108 -24.4522
39 108 -24.4522
40 108 -5.52191
41 108 -2.59602
42 108 -0.605505
43 108 0.847149
44 108 2.00367
45 108 2.87388
46 108 3.52916
47 108 4.07597
48 108 4.42646
49 108 4.67196
50 108 4.80765
51 108 4.86563
52 108 4.86255
53 108 4.89173
54 108 4.9145
55 108 4.9287
56 108 4.9139
57 108 4.85163
58 108 4.78396
59 108 4.7119
60 108 4.65597
61 108 4.61503
62 108 4.57365
63 108 4.52397
64 108 4.49489
65 108 4.46192
66 108 4.4109
67 108 4.38026
68 108 4.33214
69 108 4.2844
70 108 4.23266
71 108 4.16274
72 108 4.05969
73 108 3.94625
74 108 3.81395
75 108 3.65067
76 108 3.46716
77 108 3.23143
78 108 2.89872
79 108 2.43383
80 108 1.85046
81 108 1.24034
82 108 0.561357
83 108 -0.217783
84 108 -1.08974
85 108 -2.06161
86 108 -3.10604
87 108 -4.30204
88 108 -5.66278
89 108 -7.42824
90 108 -9.37573
91 108 -24.4522
92 108 -24.4522
93 108 -24.4522
94 108 -24.4522
95 108 -24.4522
96 108 -24.4522
97 108 -24.4522
98 108 -24.4522
99 108 -24.4522
100 108 -24.4522
101 108 -24.4522
102 108 -24.4522
103 108 -24.4522
104 108 -24.4522
105 108 -24.4522
106 108 -24.4522
107 108 -24.4522
108 108 -24.4522
109 108 -24.4522
110 108 -24.4522
111 108 -24.4522
112 108 -24.4522
113 108 -24.4522
114 108 -24.4522
115 108 -24.4522
116 108 -24.4522
117 108 -24.4522
118 108 -24.4522
119 108 -24.4522
0 109 -24.4522
1 109 -24.4522
2 109 -24.4522
3 109 -24.4522
4 109 -24.4522
5 109 -24.4522
6 109 -24.4522
7 109 -24.4522
8 109 -24.4522
9 109 -24.4522
10 109 -24.4522
11 109 -24.4522
12 109 -24.4522
13 109 -24.4522
14 109 -24.4522
15 109 -24.4522
16 109 -24.4522
17 109 -24.4522
18 109 -24.4522
19 109 -24.4522
20 109 -24.4522
21 109 -24.4522
22 109 -24.4522
23 109 -24.4522
24 109 -24.4522
25 109 -24.4522
26 109 -24.4522
27 109 -24.4522
28 109 -24.4522
29 109 -24.4522
30 109 -24.4522
31 109 -24.4522
32 109 -24.4522
33 109 -24.4522
34 109 -24.4522
35 109 -24.4522
36 109 -24.4522
37 109 -24.4522
38 109 -24.4522
39 109 -8.24114
40 109 -3.08622
41 109 -1.05078
42 109 0.544248
43 109 1.83321
44 109 2.8137
45 109 3.54473
46 109 4.12215
47 109 4.61913
48 109 4.92888
49 109 5.10063
50 109 5.23962
51 109 5.26248
52 109 5.233
53 109 5.22923
54 109 5.19489
55 109 5.173
56 109 5.16525
57 109 5.13169
58 109 5.06889
59 109 5.02885
60 109 4.98445
61 109 4.94368
62 109 4.89657
63 109 4.85895
64 109 4.83675
65 109 4.79721
66 109 4.77128
67 109 4.72879
68 109 4.67587
69 109 4.61863
70 109 4.5511
71 109 4.45972
72 109 4.35621
73 109 4.23796
74 109 4.08462
75 109 3.92821
76 109 3.73151
77 109 3.51123
78 109 3.21047
79 109 2.77231
80 109 2.23325
81 109 1.63516
82 109 0.975575
83 109 0.211804
84 109 -0.629427
85 109 -1.56692
86 109 -2.58962
87 109 -3.74233
88 109 -5.09063
89 109 -6.64488
90 109 -8.53082
91 109 -24.4522
92 109 -24.4522
93 109 -24.4522
94 109 -24.4522
95 109 -24.4522
96 109 -24.4522
97 109 -24.4522
98 109 -24.4522
99 109 -24.4522
100 109 -24.4522
101 109 -24.4522
102 109 -24.4522
103 109 -24.4522
104 109 -24.4522
105 109 -24.4522
106 109 -24.4522
107 109 -24.4522
108 109 -24.4522
109 109 -24.4522
110 109 -24.4522
111 109 -24.4522
112 109 -24.4522
113 109 -24.4522
114 109 -24.4522
115 109 -24.4522
116 109 -24.4522
117 109 -24.4522
118 109 -24.4522
119 109 -24.4522
0 110 -24.4522
1 110 -24.4522
2 110 -24.4522
3 110 -24.4522
4 110 -24.4522
5 110 -24.4522
6 110 -24.4522
7 110 -24.4522
8 110 -24.4522
9 110 -24.4522
10 110 -24.4522
11 110 -24.4522
12 110 -24.4522
13 110 -24.4522
14 110 -24.4522
15 110 -24.4522
16 110 -24.4522
17 110 -24.4522
18 110 -24.4522
19 110 -24.4522
20 110 -24.4522
21 110 -24.4522
22 110 -24.4522
23 110 -24.4522
24 110 -24.4522
25 110 -24.4522
26 110 -24.4522
27 110 -24.4522
28 110 -24.4522
29 110 -24.4522
30 110 -24.4522
31 110 -24.4522
32 110 -24.4522
33 110 -24.4522
34 110 -24.4522
35 110 -24.4522
36 110 -24.4522
37 110 -24.4522
38 110 -24.4522
39 110 -6.86582
40 110 -1.83997
41 110 0.0900327
42 110 1.51582
43 110 2.63033
44 110 3.46978
45 110 4.10782
46 110 4.64944
47 110 5.10674
48 110 5.36327
49 110 5.56194
50 110 5.66914
51 110 5.67421
52 110 5.60498
53 110 5.57929
54 110 5.5271
55 110 5.49973
56 110 5.45673
57 110 5.39123
58 110 5.31884
59 110 5.28667
60 110 5.26242
61 110 5.21915
62 110 5.19547
63 110 5.16938
64 110 5.13569
65 110 5.09981
66 110 5.08173
67 110 5.02594
68 110 4.97675
69 110 4.90764
70 110 4.82535
71 110 4.72091
72 110 4.6224
73 110 4.4798
74 110 4.32629
75 110 4.17225
76 110 3.99027
77 110 3.79973
78 110 3.49862
79 110 3.08423
80 110 2.56065
81 110 1.98006
82 110 1.33056
83 110 0.591602
84 110 -0.210275
85 110 -1.13136
86 110 -2.12509
87 110 -3.2235
88 110 -4.50524
89 110 -5.93632
90 110 -7.85609
91 110 -24.4522
92 110 -24.4522
93 110 -24.4522
94 110 -24.4522
95 110 -24.4522
96 110 -24.4522
97 110 -24.4522
98 110 -24.4522
99 110 -24.4522
100 110 -24.4522
101 110 -24.4522
102 110 -24.4522
103 110 -24.4522
104 110 -24.4522
105 110 -24.4522
106 110 -24.4522
107 110 -24.4522
108 110 -24.4522
109 110 -24.4522
110 110 -24.4522
111 110 -24.4522
112 110 -24.4522
113 110 -24.4522
114 110 -24.4522
115 110 -24.4522
116 110 -24.4522
117 110 -24.4522
118 110 -24.4522
119 110 -24.4522
0 111 -24.4522
1 111 -24.4522
2 111 -24.4522
3 111 -24.4522
4 111 -24.4522
5 111 -24.4522
6 111 -24.4522
7 111 -24.4522
8 111 -24.4522
9 111 -24.4522
10 111 -24.4522
11 111 -24.4522
12 111 -24.4522
13 111 -24.4522
14 111 -24.4522
15 111 -24.4522
16 111 -24.4522
17 111 -24.4522
18 111 -24.4522
19 111 -24.4522
20 111 -24.4522
21 111 -24.4522
22 111 -24.4522
23 111 -24.4522
24 111 -24.4522
25 111 -24.4522
26 111 -24.4522
27 111 -24.4522
28 111 -24.4522
29 111 -24.4522
30 111 -24.4522
31 111 -24.4522
32 111 -24.4522
33 111 -24.4522
34 111 -24.4522
35 111 -24.4522
36 111 -24.4522
37 111 -24.4522
38 111 -24.4522
39 111 -4.02901
40 111 -0.440294
41 111 1.15011
42 111 2.35047
43 111 3.30013
44 111 4.04536
45 111 4.65162
46 111 5.10516
47 111 5.52443
48 111 5.84569
49 111 6.0389
50 111 6.14692
51 111 6.13274
52 111 6.03302
53 111 5.98142
54 111 5.9187
55 111 5.86884
56 111 5.79019
57 111 5.70968
58 111 5.60109
59 111 5.54154
60 111 5.47888
61 111 5.47245
62 111 5.44747
63 111 5.41998
64 111 5.38944
65 111 5.35801
66 111 5.32259
67 111 5.29966
68 111 5.24137
69 111 5.16568
70 111 5.07177
71 111 4.97418
72 111 4.85553
73 111 4.73094
74 111 4.58108
75 111 4.42249
76 111 4.24907
77 111 4.05796
78 111 3.78221
79 111 3.36537
80 111 2.84971
81 111 2.29959
82 111 1.66563
83 111 0.954158
84 111 0.170503
85 111 -0.715518
86 111 -1.6771
87 111 -2.73772
88 111 -3.97167
89 111 -5.41253
90 111 -7.44078
91 111 -12.5128
92 111 -24.4522
93 111 -24.4522
94 111 -24.4522
95 111 -24.4522
96 111 -24.4522
97 111 -24.4522
98 111 -24.4522
99 111 -24.4522
100 111 -24.4522
101 111 -24.4522
102 111 -24.4522
103 111 -24.4522
104 111 -24.4522
105 111 -24.4522
106 111 -24.4522
107 111 -24.4522
108 111 -24.4522
109 111 -24.4522
110 111 -24.4522
111 111 -24.4522
112 111 -24.4522
113 111 -24.4522
114 111 -24.4522
115 111 -24.4522
116 111 -24.4522
117 111 -24.4522
118 111 -24.4522
119 111 -24.4522
0 112 -24.4522
1 112 -24.4522
2 112 -24.4522
3 112 -24.4522
4 112 -24.4522
5 112 -24.4522
6 112 -24.4522
7 112 -24.4522
8 112 -24.4522
9 112 -24.4522
10 112 -24.4522
11 112 -24.4522
12 112 -24.4522
13 112 -24.4522
14 112 -24.4522
15 112 -24.4522
16 112 -24.4522
17 112 -24.4522
18 112 -24.4522
19 112 -24.4522
20 112 -24.4522
21 112 -24.4522
22 112 -24.4522
23 112 -24.4522
24 112 -24.4522
25 112 -24.4522
26 112 -24.4522
27 112 -24.4522
28 112 -24.4522
29 112 -24.4522
30 112 -24.4522
31 112 -24.4522
32 112 -24.4522
33 112 -24.4522
34 112 -24.4522
35 112 -24.4522
36 112 -24.4522
37 112 -24.4522
38 112 -5.66997
39 112 -1.19666
40 112 0.91825
41 112 2.06195
42 112 3.07773
43 112 3.91443
44 112 4.55768
45 112 5.09376
46 112 5.56232
47 112 6.01466
48 112 6.3665
49 112 6.60038
50 112 6.68629
51 112 6.64857
52 112 6.53054
53 112 6.45722
54 112 6.37558
55 112 6.29646
56 112 6.19033
57 112 6.06056
58 112 5.93822
59 112 5.84241
60 112 5.75463
61 112 5.69786
62 112 5.65418
63 112 5.63703
64 112 5.62015
65 112 5.58377
66 112 5.55846
67 112 5.51654
68 112 5.46506
69 112 5.39011
70 112 5.29381
71 112 5.20322
72 112 5.10287
73 112 4.97833
74 112 4.82442
75 112 4.65443
76 112 4.48772
77 112 4.31475
78 112 4.05592
79 112 3.65288
80 112 3.1446
81 112 2.61467
82 112 1.99928
83 112 1.31215
84 112 0.541909
85 112 -0.324331
86 112 -1.25967
87 112 -2.31886
88 112 -3.45554
89 112 -4.69603
90 112 -6.10202
91 112 -7.95963
92 112 -24.4522
93 112 -24.4522
94 112 -24.4522
95 112 -24.4522
96 112 -24.4522
97 112 -24.4522
98 112 -24.4522
99 112 -24.4522
100 112 -24.4522
101 112 -24.4522
102 112 -24.4522
103 112 -24.4522
104 112 -24.4522
105 112 -24.4522
106 112 -24.4522
107 112 -24.4522
108 112 -24.4522
109 112 -24.4522
110 112 -24.4522
111 112 -24.4522
112 112 -24.4522
113 112 -24.4522
114 112 -24.4522
115 112 -24.4522
116 112 -24.4522
117 112 -24.4522
118 112 -24.4522
119 112 -24.4522
0 113 -24.4522
1 113 -24.4522
2 113 -24.4522
3 113 -24.4522
4 113 -24.4522
5 113 -24.4522
6 113 -24.4522
7 113 -24.4522
8 113 -24.4522
9 113 -24.4522
10 113 -24.4522
11 113 -24.4522
12 113 -24.4522
13 113 -24.4522
14 113 -24.4522
15 113 -24.4522
16 113 -24.4522
17 113 -24.4522
18 113 -24.4522
19 113 -24.4522
20 113 -24.4522
21 113 -24.4522
22 113 -24.4522
23 113 -24.4522
24 113 -24.4522
25 113 -24.4522
26 113 -24.4522
27 113 -24.4522
28 113 -24.4522
29 113 -24.4522
30 113 -24.4522
31 113 -24.4522
32 113 -24.4522
33 113 -24.4522
34 113 -24.4522
35 113 -24.4522
36 113 -24.4522
37 113 -24.4522
38 113 -3.79952
39 113 -0.0576759
40 113 1.80118
41 113 2.8327
42 113 3.73081
43 113 4.45681
44 113 5.12357
45 113 5.69751
46 113 6.21077
47 113 6.64912
48 113 7.01171
49 113 7.24375
50 113 7.31789
51 113 7.22944
52 113 7.10101
53 113 6.9909
54 113 6.88789
55 113 6.74105
56 113 6.59583
57 113 6.43101
58 113 6.27964
59 113 6.14912
60 113 6.04084
61 113 5.94803
62 113 5.88086
63 113 5.8558
64 113 5.80732
65 113 5.78028
66 113 5.751
67 113 5.71254
68 113 5.66762
69 113 5.60573
70 113 5.51926
71 113 5.41638
72 113 5.30091
73 113 5.18875
74 113 5.05502
75 113 4.9052
76 113 4.74398
77 113 4.56956
78 113 4.30644
79 113 3.93088
80 113 3.42986
81 113 2.89679
82 113 2.31663
83 113 1.64538
84 113 0.891645
85 113 0.0672735
86 113 -0.861201
87 113 -1.87252
88 113 -2.97834
89 113 -4.18837
90 113 -5.70798
91 113 -7.78291
92 113 -24.4522
93 113 -24.4522
94 113 -24.4522
95 113 -24.4522
96 113 -24.4522
97 113 -24.4522
98 113 -24.4522
99 113 -24.4522
100 113 -24.4522
101 113 -24.4522
102 113 -24.4522
103 113 -24.4522
104 113 -24.4522
105 113 -24.4522
106 113 -24.4522
107 113 -24.4522
108 113 -24.4522
109 113 -24.4522
110 113 -24.4522
111 113 -24.4522
112 113 -24.4522
113 113 -24.4522
114 113 -24.4522
115 113 -24.4522
116 113 -24.4522
117 113 -24.4522
118 113 -24.4522
119 113 -24.4522
0 114 -24.4522
1 114 -24.4522
2 114 -24.4522
3 114 -24.4522
4 114 -24.4522
5 114 -24.4522
6 114 -24.4522
7 114 -24.4522
8 114 -24.4522
9 114 -24.4522
10 114 -24.4522
11 114 -24.4522
12 114 -24.4522
13 114 -24.4522
14 114 -24.4522
15 114 -24.4522
16 114 -24.4522
17 114 -24.4522
18 114 -24.4522
19 114 -24.4522
20 114 -24.4522
21 114 -24.4522
22 114 -24.4522
23 114 -24.4522
24 114 -24.4522
25 114 -24.4522
26 114 -24.4522
27 114 -24.4522
28 114 -24.4522
29 114 -24.4522
30 114 -24.4522
31 114 -24.4522
32 114 -24.4522
33 114 -24.4522
34 114 -24.4522
35 114 -24.4522
36 114 -24.4522
37 114 -6.32721
38 114 -0.781452
39 114 1.11666
40 114 2.60979
41 114 3.57276
42 114 4.44419
43 114 5.23766
44 114 5.90331
45 114 6.50637
46 114 7.00479
47 114 7.42383
48 114 7.71636
49 114 7.9495
50 114 8.00842
51 114 7.88718
52 114 7.74112
53 114 7.57886
54 114 7.43971
55 114 7.25326
56 114 7.04946
57 114 6.84879
58 114 6.65629
59 114 6.50823
60 114 6.37783
61 114 6.26072
62 114 6.16029
63 114 6.08349
64 114 6.02668
65 114 5.99594
66 114 5.93598
67 114 5.90045
68 114 5.85386
69 114 5.79416
70 114 5.72505
71 114 5.63803
72 114 5.53761
73 114 5.43153
74 114 5.28711
75 114 5.14292
76 114 4.97388
77 114 4.80215
78 114 4.54877
79 114 4.17567
80 114 3.70571
81 114 3.20394
82 114 2.62588
83 114 1.9971
84 114 1.25839
85 114 0.469592
86 114 -0.419483
87 114 -1.41795
88 114 -2.53399
89 114 -3.70328
90 114 -5.30877
91 114 -8.01227
92 114 -14.5089
93 114 -24.4522
94 114 -24.4522
95 114 -24.4522
96 114 -24.4522
97 114 -24.4522
98 114 -24.4522
99 114 -24.4522
100 114 -24.4522
101 114 -24.4522
102 114 -24.4522
103 114 -24.4522
104 114 -24.4522
105 114 -24.4522
106 114 -24.4522
107 114 -24.4522
108 114 -24.4522
109 114 -24.4522
110 114 -24.4522
111 114 -24.4522
112 114 -24.4522
113 114 -24.4522
114 114 -24.4522
115 114 -24.4522
116 114 -24.4522
117 114 -24.4522
118 114 -24.4522
119 114 -24.4522
0 115 -24.4522
1 115 -24.4522
2 115 -24.4522
3 115 -24.4522
4 115 -24.4522
5 115 -24.4522
6 115 -24.4522
7 115 -24.4522
8 115 -24.4522
9 115 -24.4522
10 115 -24.4522
11 115 -24.4522
12 115 -24.4522
13 115 -24.4522
14 115 -24.4522
15 115 -24.4522
16 115 -24.4522
17 115 -24.4522
18 115 -24.4522
19 115 -24.4522
20 115 -24.4522
21 115 -24.4522
22 115 -24.4522
23 115 -24.4522
24 115 -24.4522
25 115 -24.4522
26 115 -24.4522
27 115 -24.4522
28 115 -24.4522
29 115 -24.4522
30 115 -24.4522
31 115 -24.4522
32 115 -24.4522
33 115 -24.4522
34 115 -24.4522
35 115 -24.4522
36 115 -24.4522
37 115 -4.48603
38 115 0.0803683
39 115 1.95616
40 115 3.38195
41 115 4.48922
42 115 5.4585
43 115 6.25914
44 115 6.9799
45 115 7.56166
46 115 8.03983
47 115 8.39502
48 115 8.61579
49 115 8.77379
50 115 8.80823
51 115 8.66243
52 115 8.45302
53 115 8.25654
54 115 8.03521
55 115 7.81407
56 115 7.53658
57 115 7.29507
58 115 7.07995
59 115 6.88557
60 115 6.741
61 115 6.58837
62 115 6.47682
63 115 6.37685
64 115 6.28713
65 115 6.19697
66 115 6.12932
67 115 6.06394
68 115 6.03928
69 115 5.99564
70 115 5.93853
71 115 5.86612
72 115 5.76364
73 115 5.65585
74 115 5.52766
75 115 5.37547
76 115 5.2114
77 115 5.04218
78 115 4.808
79 115 4.45505
80 115 3.99835
81 115 3.5003
82 115 2.92879
83 115 2.30368
84 115 1.62996
85 115 0.874839
86 115 0.0135159
87 115 -0.961096
88 115 -2.01827
89 115 -3.07529
90 115 -4.25903
91 115 -5.32979
92 115 -8.34147
93 115 -24.4522
94 115 -24.4522
95 115 -24.4522
96 115 -24.4522
97 115 -24.4522
98 115 -24.4522
99 115 -24.4522
100 115 -24.4522
101 115 -24.4522
102 115 -24.4522
103 115 -24.4522
104 115 -24.4522
105 115 -24.4522
106 115 -24.4522
107 115 -24.4522
108 115 -24.4522
109 115 -24.4522
110 115 -24.4522
111 115 -24.4522
112 115 -24.4522
113 115 -24.4522
114 115 -24.4522
115 115 -24.4522
116 115 -24.4522
117 115 -24.4522
118 115 -24.4522
119 115 -24.4522
0 116 -24.4522
1 116 -24.4522
2 116 -24.4522
3 116 -24.4522
4 116 -24.4522
5 116 -24.4522
6 116 -24.4522
7 116 -24.4522
8 116 -24.4522
9 116 -24.4522
10 116 -24.4522
11 116 -24.4522
12 116 -24.4522
13 116 -24.4522
14 116 -24.4522
15 116 -24.4522
16 116 -24.4522
17 116 -24.4522
18 116 -24.4522
19 116 -24.4522
20 116 -24.4522
21 116 -24.4522
22 116 -24.4522
23 116 -24.4522
24 116 -24.4522
25 116 -24.4522
26 116 -24.4522
27 116 -24.4522
28 116 -24.4522
29 116 -24.4522
30 116 -24.4522
31 116 -24.4522
32 116 -24.4522
33 116 -24.4522
34 116 -24.4522
35 116 -24.4522
36 116 -8.84972
37 116 -1.39155
38 116 1.12662
39 116 2.79429
40 116 4.27168
41 116 5.54991
42 116 6.70577
43 116 7.61529
44 116 8.34694
45 116 8.95829
46 116 9.34283
47 116 9.60753
48 116 9.75624
49 116 9.7796
50 116 9.75046
51 116 9.52964
52 116 9.27712
53 116 8.99184
54 116 8.69928
55 116 8.42994
56 116 8.099
57 116 7.80123
58 116 7.55185
59 116 7.31541
60 116 7.11214
61 116 6.95398
62 116 6.8104
63 116 6.65433
64 116 6.52917
65 116 6.44484
66 116 6.37009
67 116 6.29494
68 116 6.25397
69 116 6.21382
70 116 6.15315
71 116 6.07487
72 116 5.98639
73 116 5.88431
74 116 5.77021
75 116 5.61489
76 116 5.44632
77 116 5.27101
78 116 5.06159
79 116 4.69852
80 116 4.26373
81 116 3.77462
82 116 3.22404
83 116 2.61454
84 116 1.9833
85 116 1.25628
86 116 0.442176
87 116 -0.489596
88 116 -1.49816
89 116 -2.49717
90 116 -3.60418
91 116 -4.77105
92 116 -7.21326
93 116 -24.4522
94 116 -24.4522
95 116 -24.4522
96 116 -24.4522
97 116 -24.4522
98 116 -24.4522
99 116 -24.4522
100 116 -24.4522
101 116 -24.4522
102 116 -24.4522
103 116 -24.4522
104 116 -24.4522
105 116 -24.4522
106 116 -24.4522
107 116 -24.4522
108 116 -24.4522
109 116 -24.4522
110 116 -24.4522
111 116 -24.4522
112 116 -24.4522
113 116 -24.4522
114 116 -24.4522
115 116 -24.4522
116 116 -24.4522
117 116 -24.4522
118 116 -24.4522
119 116 -24.4522
0 117 -24.4522
1 117 -24.4522
2 117 -24.4522
3 117 -24.4522
4 117 -24.4522
5 117 -24.4522
6 117 -24.4522
7 117 -24.4522
8 117 -24.4522
9 117 -24.4522
10 117 -24.4522
11 117 -24.4522
12 117 -24.4522
13 117 -24.4522
14 117 -24.4522
15 117 -24.4522
16 117 -24.4522
17 117 -24.4522
18 117 -24.4522
19 117 -24.4522
20 117 -24.4522
21 117 -24.4522
22 117 -24.4522
23 117 -24.4522
24 117 -24.4522
25 117 -24.4522
26 117 -24.4522
27 117 -24.4522
28 117 -24.4522
29 117 -24.4522
30 117 -24.4522
31 117 -24.4522
32 117 -24.4522
33 117 -24.4522
34 117 -24.4522
35 117 -24.4522
36 117 -7.41974
37 117 -0.758292
38 117 1.79134
39 117 3.66086
40 117 5.38483
41 117 6.8119
42 117 7.96906
43 117 9.12506
44 117 10.0204
45 117 10.473
46 117 10.7446
47 117 10.9309
48 117 10.9682
49 117 10.8975
50 117 10.7805
51 117 10.5016
52 117 10.1405
53 117 9.79539
54 117 9.43521
55 117 9.08897
56 117 8.71799
57 117 8.36615
58 117 8.05518
59 117 7.78112
60 117 7.55264
61 117 7.30541
62 117 7.12042
63 117 6.96011
64 117 6.8414
65 117 6.7392
66 117 6.6328
67 117 6.54829
68 117 6.48642
69 117 6.42692
70 117 6.36806
71 117 6.30297
72 117 6.20888
73 117 6.10976
74 117 5.99244
75 117 5.85815
76 117 5.70483
77 117 5.52455
78 117 5.30005
79 117 4.96514
80 117 4.52836
81 117 4.05846
82 117 3.50851
83 117 2.92862
84 117 2.31972
85 117 1.64302
86 117 0.869297
87 117 -0.030361
88 117 -1.01216
89 117 -2.00196
90 117 -3.11334
91 117 -4.48879
92 117 -6.75684
93 117 -24.4522
94 117 -24.4522
95 117 -24.4522
96 117 -24.4522
97 117 -24.4522
98 117 -24.4522
99 117 -24.4522
100 117 -24.4522
101 117 -24.4522
102 117 -24.4522
103 117 -24.4522
104 117 -24.4522
105 117 -24.4522
106 117 -24.4522
107 117 -24.4522
108 117 -24.4522
109 117 -24.4522
110 117 -24.4522
111 117 -24.4522
112 117 -24.4522
113 117 -24.4522
114 117 -24.4522
115 117 -24.4522
116 117 -24.4522
117 117 -24.4522
118 117 -24.4522
119 117 -24.4522
0 118 -24.4522
1 118 -24.4522
2 118 -24.4522
3 118 -24.4522
4 118 -24.4522
5 118 -24.4522
6 118 -24.4522
7 118 -24.4522
8 118 -24.4522
9 118 -24.4522
10 118 -24.4522
11 118 -24.4522
12 118 -24.4522
13 118 -24.4522
14 118 -24.4522
15 118 -24.4522
16 118 -24.4522
17 118 -24.4522
18 118 -24.4522
19 118 -24.4522
20 118 -24.4522
21 118 -24.4522
22 118 -24.4522
23 118 -24.4522
24 118 -24.4522
25 118 -24.4522
26 118 -24.4522
27 118 -24.4522
28 118 -24.4522
29 118 -24.4522
30 118 -24.4522
31 118 -24.4522
32 118 -24.4522
33 118 -24.4522
34 118 -24.4522
35 118 -24.4522
36 118 -4.38438
37 118 0.215487
38 118 2.64214
39 118 4.76664
40 118 6.49167
41 118 8.24899
42 118 9.82242
43 118 10.6649
44 118 11.1692
45 118 11.5378
46 118 11.7618
47 118 11.9199
48 118 11.9535
49 118 11.8685
50 118 11.7105
51 118 11.42
52 118 11.0726
53 118 10.6544
54 118 10.2025
55 118 9.77597
56 118 9.34012
57 118 8.94601
58 118 8.57929
59 118 8.23657
60 118 7.96467
61 118 7.70948
62 118 7.49573
63 118 7.32123
64 118 7.17631
65 118 7.04471
66 118 6.90641
67 118 6.80256
68 118 6.73635
69 118 6.66983
70 118 6.61455
71 118 6.53912
72 118 6.45166
73 118 6.35904
74 118 6.24403
75 118 6.09948
76 118 5.93953
77 118 5.7631
78 118 5.55039
79 118 5.21431
80 118 4.81052
81 118 4.34937
82 118 3.81435
83 118 3.23524
84 118 2.66136
85 118 2.02071
86 118 1.27907
87 118 0.400637
88 118 -0.571949
89 118 -1.58056
90 118 -2.79395
91 118 -4.29181
92 118 -6.33415
93 118 -24.4522
94 118 -24.4522
95 118 -24.4522
96 118 -24.4522
97 118 -24.4522
98 118 -24.4522
99 118 -24.4522
100 118 -24.4522
101 118 -24.4522
102 118 -24.4522
103 118 -24.4522
104 118 -24.4522
105 118 -24.4522
106 118 -24.4522
107 118 -24.4522
108 118 -24.4522
109 118 -24.4522
110 118 -24.4522
111 118 -24.4522
112 118 -24.4522
113 118 -24.4522
114 118 -24.4522
115 118 -24.4522
116 118 -24.4522
117 118 -24.4522
118 118 -24.4522
119 118 -24.4522
0 119 -24.4522
1 119 -24.4522
2 119 -24.4522
3 119 -24.4522
4 119 -24.4522
5 119 -24.4522
6 119 -24.4522
7 119 -24.4522
8 119 -24.4522
9 119 -24.4522
10 119 -24.4522
11 119 -24.4522
12 119 -24.4522
13 119 -24.4522
14 119 -24.4522
15 119 -24.4522
16 119 -24.4522
17 119 -24.4522
18 119 -24.4522
19 119 -24.4522
20 119 -24.4522
21 119 -24.4522
22 119 -24.4522
23 119 -24.4522
24 119 -24.4522
25 119 -24.4522
26 119 -24.4522
27 119 -24.4522
28 119 -24.4522
29 119 -24.4522
30 119 -24.4522
31 119 -24.4522
32 119 -24.4522
33 119 -24.4522
34 119 -24.4522
35 119 -8.73085
36 119 -1.59891
37 119 1.44372
38 119 3.66661
39 119 5.94577
40 119 8.28771
41 119 10.0284
42 119 10.9799
43 119 11.7044
44 119 12.1822
45 119 12.5385
46 119 12.7402
47 119 12.8434
48 119 12.8524
49 119 12.779
50 119 12.5789
51 119 12.2834
52 119 11.8944
53 119 11.4751
54 119 11.0265
55 119 10.5253
56 119 9.98635
57 119 9.50828
58 119 9.09512
59 119 8.73598
60 119 8.44618
61 119 8.12976
62 119 7.91671
63 119 7.71654
64 119 7.52872
65 119 7.3569
66 119 7.20837
67 119 7.08252
68 119 6.99979
69 119 6.92782
70 119 6.86436
71 119 6.769
72 119 6.69208
73 119 6.58726
74 119 6.47462
75 119 6.33882
76 119 6.18994
77 119 6.01107
78 119 5.81083
79 119 5.48034
80 119 5.07972
81 119 4.62191
82 119 4.10276
83 119 3.56581
84 119 3.00482
85 119 2.4079
86 119 1.68485
87 119 0.843961
88 119 -0.140192
89 119 -1.19415
90 119 -2.49347
91 119 -4.17122
92 119 -6.36407
93 119 -24.4522
94 119 -24.4522
95 119 -24.4522
96 119 -24.4522
97 119 -24.4522
98 119 -24.4522
99 119 -24.4522
100 119 -24.4522
101 119 -24.4522
102 119 -24.4522
103 119 -24.4522
104 119 -24.4522
105 119 -24.4522
106 119 -24.4522
107 119 -24.4522
108 119 -24.4522
109 119 -24.4522
110 119 -24.4522
111 119 -24.4522
112 119 -24.4522
113 119 -24.4522
114 119 -24.4522
115 119 -24.4522
116 119 -24.4522
117 119 -24.4522
118 119 -24.4522
119 119 -24.4522
0 120 -24.4522
1 120 -24.4522
2 120 -24.4522
3 120 -24.4522
4 120 -24.4522
5 120 -24.4522
6 120 -24.4522
7 120 -24.4522
8 120 -24.4522
9 120 -24.4522
10 120 -24.4522
11 120 -24.4522
12 120 -24.4522
13 120 -24.4522
14 120 -24.4522
15 120 -24.4522
16 120 -24.4522
17 120 -24.4522
18 120 -24.4522
19 120 -24.4522
20 120 -24.4522
21 120 -24.4522
22 120 -24.4522
23 120 -24.4522
24 120 -24.4522
25 120 -24.4522
26 120 -24.4522
27 120 -24.4522
28 120 -24.4522
29 120 -24.4522
30 120 -24.4522
31 120 -24.4522
32 120 -24.4522
33 120 -24.4522
34 120 -24.4522
35 120 -6.98246
36 120 -0.871915
37 120 1.79438
38 120 4.96454
39 120 7.92146
40 120 9.90305
41 120 11.1981
42 120 12.1246
43 120 12.6756
44 120 13.1101
45 120 13.411
46 120 13.6067
47 120 13.6998
48 120 13.6841
49 120 13.5936
50 120 13.3693
51 120 13.0625
52 120 12.6444
53 120 12.1992
54 120 11.6892
55 120 11.1606
56 120 10.6266
57 120 10.1072
58 120 9.64646
59 120 9.25176
60 120 8.90586
61 120 8.57972
62 120 8.32828
63 120 8.10056
64 120 7.87755
65 120 7.70425
66 120 7.52909
67 120 7.39505
68 120 7.28578
69 120 7.20784
70 120 7.12308
71 120 7.04805
72 120 6.94474
73 120 6.84067
74 120 6.73008
75 120 6.60324
76 120 6.44568
77 120 6.26587
78 120 6.0611
79 120 5.74102
80 120 5.37557
81 120 4.93303
82 120 4.46681
83 120 3.92216
84 120 3.36629
85 120 2.77287
86 120 2.09933
87 120 1.2813
88 120 0.302272
89 120 -0.789606
90 120 -2.18469
91 120 -4.05129
92 120 -6.58417
93 120 -24.4522
94 120 -24.4522
95 120 -24.4522
96 120 -24.4522
97 120 -24.4522
98 120 -24.4522
99 120 -24.4522
100 120 -24.4522
101 120 -24.4522
102 120 -24.4522
103 120 -24.4522
104 120 -24.4522
105 120 -24.4522
106 120 -24.4522
107 120 -24.4522
108 120 -24.4522
109 120 -24.4522
110 120 -24.4522
111 120 -24.4522
112 120 -24.4522
113 120 -24.4522
114 120 -24.4522
115 120 -24.4522
116 120 -24.4522
117 120 -24.4522
118 120 -24.4522
119 120 -24.4522
0 121 -24.4522
1 121 -24.4522
2 121 -24.4522
3 121 -24.4522
4 121 -24.4522
5 121 -24.4522
6 121 -24.4522
7 121 -24.4522
8 121 -24.4522
9 121 -24.4522
10 121 -24.4522
11 121 -24.4522
12 121 -24.4522
13 121 -24.4522
14 121 -24.4522
15 121 -24.4522
16 121 -24.4522
17 121 -24.4522
18 121 -24.4522
19 121 -24.4522
20 121 -24.4522
21 121 -24.4522
22 121 -24.4522
23 121 -24.4522
24 121 -24.4522
25 121 -24.4522
26 121 -24.4522
27 121 -24.4522
28 121 -24.4522
29 121 -24.4522
30 121 -24.4522
31 121 -24.4522
32 121 -24.4522
33 121 -24.4522
34 121 -24.4522
35 121 -3.65748
36 121 -0.0759844
37 121 3.10102
38 121 6.98692
39 121 9.70343
40 121 11.5374
41 121 12.5521
42 121 13.2913
43 121 13.7832
44 121 14.134
45 121 14.3502
46 121 14.4864
47 121 14.5335
48 121 14.4667
49 121 14.3224
50 121 14.1064
51 121 13.7652
52 121 13.3336
53 121 12.8445
54 121 12.293
55 121 11.7686
56 121 11.26
57 121 10.7198
58 121 10.2017
59 121 9.77339
60 121 9.39506
61 121 9.0596
62 121 8.77147
63 121 8.5046
64 121 8.26154
65 121 8.06643
66 121 7.88737
67 121 7.74552
68 121 7.60349
69 121 7.52027
70 121 7.42493
71 121 7.33124
72 121 7.21998
73 121 7.11211
74 121 6.99063
75 121 6.85737
76 121 6.70378
77 121 6.54658
78 121 6.34181
79 121 6.04745
80 121 5.69651
81 121 5.30305
82 121 4.8557
83 121 4.34092
84 121 3.77412
85 121 3.18358
86 121 2.53281
87 121 1.74412
88 121 0.789912
89 121 -0.318968
90 121 -1.83141
91 121 -3.8676
92 121 -6.86471
93 121 -24.4522
94 121 -24.4522
95 121 -24.4522
96 121 -24.4522
97 121 -24.4522
98 121 -24.4522
99 121 -24.4522
100 121 -24.4522
101 121 -24.4522
102 121 -24.4522
103 121 -24.4522
104 121 -24.4522
105 121 -24.4522
106 121 -24.4522
107 121 -24.4522
108 121 -24.4522
109 121 -24.4522
110 121 -24.4522
111 121 -24.4522
112 121 -24.4522
113 121 -24.4522
114 121 -24.4522
115 121 -24.4522
116 121 -24.4522
117 121 -24.4522
118 121 -24.4522
119 121 -24.4522
0 122 -24.4522
1 122 -24.4522
2 122 -24.4522
3 122 -24.4522
4 122 -24.4522
5 122 -24.4522
6 122 -24.4522
7 122 -24.4522
8 122 -24.4522
9 122 -24.4522
10 122 -24.4522
11 122 -24.4522
12 122 -24.4522
13 122 -24.4522
14 122 -24.4522
15 122 -24.4522
16 122 -24.4522
17 122 -24.4522
18 122 -24.4522
19 122 -24.4522
20 122 -24.4522
21 122 -24.4522
22 122 -24.4522
23 122 -24.4522
24 122 -24.4522
25 122 -24.4522
26 122 -24.4522
27 122 -24.4522
28 122 -24.4522
29 122 -24.4522
30 122 -24.4522
31 122 -24.4522
32 122 -24.4522
33 122 -24.4522
34 122 -6.16688
35 122 -1.29885
36 122 1.12409
37 122 5.06849
38 122 8.92632
39 122 11.4396
40 122 13.0242
41 122 13.8912
42 122 14.5184
43 122 14.888
44 122 15.1158
45 122 15.2958
46 122 15.3789
47 122 15.3785
48 122 15.2764
49 122 15.117
50 122 14.8732
51 122 14.4739
52 122 14.0048
53 122 13.4559
54 122 12.8975
55 122 12.3569
56 122 11.8156
57 122 11.3062
58 122 10.7951
59 122 10.3316
60 122 9.91552
61 122 9.54503
62 122 9.21674
63 122 8.92227
64 122 8.66396
65 122 8.41824
66 122 8.23387
67 122 8.08506
68 122 7.95262
69 122 7.83823
70 122 7.7528
71 122 7.65397
72 122 7.54104
73 122 7.40614
74 122 7.28462
75 122 7.13763
76 122 6.98295
77 122 6.82687
78 122 6.64564
79 122 6.37223
80 122 6.07713
81 122 5.72486
82 122 5.30124
83 122 4.80179
84 122 4.24686
85 122 3.64622
86 122 3.00668
87 122 2.24486
88 122 1.31261
89 122 0.195814
90 122 -1.2919
91 122 -3.51512
92 122 -7.45999
93 122 -14.0543
94 122 -24.4522
95 122 -24.4522
96 122 -24.4522
97 122 -24.4522
98 122 -24.4522
99 122 -24.4522
100 122 -24.4522
101 122 -24.4522
102 122 -24.4522
103 122 -24.4522
104 122 -24.4522
105 122 -24.4522
106 122 -24.4522
107 122 -24.4522
108 122 -24.4522
109 122 -24.4522
110 122 -24.4522
111 122 -24.4522
112 122 -24.4522
113 122 -24.4522
114 122 -24.4522
115 122 -24.4522
116 122 -24.4522
117 122 -24.4522
118 122 -24.4522
119 122 -24.4522
0 123 -24.4522
1 123 -24.4522
2 123 -24.4522
3 123 -24.4522
4 123 -24.4522
5 123 -24.4522
6 123 -24.4522
7 123 -24.4522
8 123 -24.4522
9 123 -24.4522
10 123 -24.4522
11 123 -24.4522
12 123 -24.4522
13 123 -24.4522
14 123 -24.4522
15 123 -24.4522
16 123 -24.4522
17 123 -24.4522
18 123 -24.4522
19 123 -24.4522
20 123 -24.4522
21 123 -24.4522
22 123 -24.4522
23 123 -24.4522
24 123 -24.4522
25 123 -24.4522
26 123 -24.4522
27 123 -24.4522
28 123 -24.4522
29 123 -24.4522
30 123 -24.4522
31 123 -24.4522
32 123 -24.4522
33 123 -24.4522
34 123 -4.31879
35 123 -0.755001
36 123 3.28184
37 123 7.67163
38 123 10.7613
39 123 12.7364
40 123 13.9543
41 123 14.8487
42 123 15.4496
43 123 15.7915
44 123 16.0201
45 123 16.1278
46 123 16.1781
47 123 16.1454
48 123 16.0372
49 123 15.855
50 123 15.5928
51 123 15.1732
52 123 14.7043
53 123 14.1372
54 123 13.5305
55 123 12.9669
56 123 12.4049
57 123 11.8746
58 123 11.3657
59 123 10.9143
60 123 10.4343
61 123 10.0272
62 123 9.6592
63 123 9.34958
64 123 9.07338
65 123 8.82477
66 123 8.61011
67 123 8.44552
68 123 8.31308
69 123 8.19919
70 123 8.10652
71 123 8.01619
72 123 7.90566
73 123 7.75741
74 123 7.62175
75 123 7.46539
76 123 7.30685
77 123 7.12938
78 123 6.95677
79 123 6.77005
80 123 6.52463
81 123 6.21238
82 123 5.82135
83 123 5.35081
84 123 4.78544
85 123 4.16817
86 123 3.51923
87 123 2.78166
88 123 1.89955
89 123 0.840411
90 123 -0.534037
91 123 -2.41301
92 123 -5.40843
93 123 -9.50673
94 123 -24.4522
95 123 -24.4522
96 123 -24.4522
97 123 -24.4522
98 123 -24.4522
99 123 -24.4522
100 123 -24.4522
101 123 -24.4522
102 123 -24.4522
103 123 -24.4522
104 123 -24.4522
105 123 -24.4522
106 123 -24.4522
107 123 -24.4522
108 123 -24.4522
109 123 -24.4522
110 123 -24.4522
111 123 -24.4522
112 123 -24.4522
113 123 -24.4522
114 123 -24.4522
115 123 -24.4522
116 123 -24.4522
117 123 -24.4522
118 123 -24.4522
119 123 -24.4522
0 124 -24.4522
1 124 -24.4522
2 124 -24.4522
3 124 -24.4522
4 124 -24.4522
5 124 -24.4522
6 124 -24.4522
7 124 -24.4522
8 124 -24.4522
9 124 -24.4522
10 124 -24.4522
11 124 -24.4522
12 124 -24.4522
13 124 -24.4522
14 124 -24.4522
15 124 -24.4522
16 124 -24.4522
17 124 -24.4522
18 124 -24.4522
19 124 -24.4522
20 124 -24.4522
21 124 -24.4522
22 124 -24.4522
23 124 -24.4522
24 124 -24.4522
25 124 -24.4522
26 124 -24.4522
27 124 -24.4522
28 124 -24.4522
29 124 -24.4522
30 124 -24.4522
31 124 -24.4522
32 124 -24.4522
33 124 -5.01555
34 124 -2.84511
35 124 1.303
36 124 6.38352
37 124 9.86824
38 124 12.2568
39 124 13.6165
40 124 14.5829
41 124 15.4039
42 124 15.9866
43 124 16.3627
44 124 16.6324
45 124 16.8221
46 124 16.9039
47 124 16.8829
48 124 16.7129
49 124 16.5291
50 124 16.2475
51 124 15.8721
52 124 15.392
53 124 14.8482
54 124 14.2021
55 124 13.5854
56 124 13.0044
57 124 12.4657
58 124 11.9649
59 124 11.4505
60 124 10.9651
61 124 10.483
62 124 10.0823
63 124 9.74385
64 124 9.46957
65 124 9.22767
66 124 9.02523
67 124 8.86082
68 124 8.71405
69 124 8.60384
70 124 8.51425
71 124 8.37646
72 124 8.25445
73 124 8.10752
74 124 7.96627
75 124 7.81278
76 124 7.67502
77 124 7.53334
78 124 7.39257
79 124 7.2505
80 124 7.03051
81 124 6.76973
82 124 6.42126
83 124 5.96194
84 124 5.38226
85 124 4.75413
86 124 4.08695
87 124 3.38999
88 124 2.54575
89 124 1.54214
90 124 0.292997
91 124 -1.46495
92 124 -4.35794
93 124 -9.02652
94 124 -24.4522
95 124 -24.4522
96 124 -24.4522
97 124 -24.4522
98 124 -24.4522
99 124 -24.4522
100 124 -24.4522
101 124 -24.4522
102 124 -24.4522
103 124 -24.4522
104 124 -24.4522
105 124 -24.4522
106 124 -24.4522
107 124 -24.4522
108 124 -24.4522
109 124 -24.4522
110 124 -24.4522
111 124 -24.4522
112 124 -24.4522
113 124 -24.4522
114 124 -24.4522
115 124 -24.4522
116 124 -24.4522
117 124 -24.4522
118 124 -24.4522
119 124 -24.4522
0 125 -24.4522
1 125 -24.4522
2 125 -24.4522
3 125 -24.4522
4 125 -24.4522
5 125 -24.4522
6 125 -24.4522
7 125 -24.4522
8 125 -24.4522
9 125 -24.4522
10 125 -24.4522
11 125 -24.4522
12 125 -24.4522
13 125 -24.4522
14 125 -24.4522
15 125 -24.4522
16 125 -24.4522
17 125 -24.4522
18 125 -24.4522
19 125 -24.4522
20 125 -24.4522
21 125 -24.4522
22 125 -24.4522
23 125 -24.4522
24 125 -24.4522
25 125 -24.4522
26 125 -24.4522
27 125 -24.4522
28 125 -24.4522
29 125 -24.4522
30 125 -24.4522
31 125 -24.4522
32 125 -24.4522
33 125 -2.38321
34 125 0.398069
35 125 4.89993
36 125 8.68054
37 125 11.3217
38 125 12.9958
39 125 14.1865
40 125 15.0902
41 125 15.8216
42 125 16.3643
43 125 16.7339
44 125 17.0164
45 125 17.194
46 125 17.2997
47 125 17.3497
48 125 17.3172
49 125 17.1664
50 125 16.8897
51 125 16.5138
52 125 16.0425
53 125 15.5041
54 125 14.8798
55 125 14.2166
56 125 13.6074
57 125 13.0626
58 125 12.5231
59 125 11.9957
60 125 11.4696
61 125 10.9381
62 125 10.5238
63 125 10.1478
64 125 9.81108
65 125 9.58377
66 125 9.4156
67 125 9.2672
68 125 9.15539
69 125 9.04081
70 125 8.94672
71 125 8.85046
72 125 8.74069
73 125 8.59717
74 125 8.45588
75 125 8.31229
76 125 8.16561
77 125 8.0541
78 125 7.94267
79 125 7.85345
80 125 7.70113
81 125 7.5024
82 125 7.18413
83 125 6.73071
84 125 6.07253
85 125 5.42331
86 125 4.70477
87 125 3.99641
88 125 3.19317
89 125 2.24603
90 125 1.08156
91 125 -0.488769
92 125 -3.26325
93 125 -8.37862
94 125 -24.4522
95 125 -24.4522
96 125 -24.4522
97 125 -24.4522
98 125 -24.4522
99 125 -24.4522
100 125 -24.4522
101 125 -24.4522
102 125 -24.4522
103 125 -24.4522
104 125 -24.4522
105 125 -24.4522
106 125 -24.4522
107 125 -24.4522
108 125 -24.4522
109 125 -24.4522
110 125 -24.4522
111 125 -24.4522
112 125 -24.4522
113 125 -24.4522
114 125 -24.4522
115 125 -24.4522
116 125 -24.4522
117 125 -24.4522
118 125 -24.4522
119 125 -24.4522
0 126 -24.4522
1 126 -24.4522
2 126 -24.4522
3 126 -24.4522
4 126 -24.4522
5 126 -24.4522
6 126 -24.4522
7 126 -24.4522
8 126 -24.4522
9 126 -24.4522
10 126 -24.4522
11 126 -24.4522
12 126 -24.4522
13 126 -24.4522
14 126 -24.4522
15 126 -24.4522
16 126 -24.4522
17 126 -24.4522
18 126 -24.4522
19 126 -24.4522
20 126 -24.4522
21 126 -24.4522
22 126 -24.4522
23 126 -24.4522
24 126 -24.4522
25 126 -24.4522
26 126 -24.4522
27 126 -24.4522
28 126 -24.4522
29 126 -24.4522
30 126 -24.4522
31 126 -24.4522
32 126 -0.593898
33 126 -1.97184
34 126 3.66587
35 126 7.45393
36 126 10.1982
37 126 12.2537
38 126 13.6673
39 126 14.7393
40 126 15.5742
41 126 16.1598
42 126 16.6235
43 126 16.9639
44 126 17.2512
45 126 17.463
46 126 17.5982
47 126 17.6791
48 126 17.6983
49 126 17.6165
50 126 17.3587
51 126 17.0166
52 126 16.5765
53 126 16.0575
54 126 15.4789
55 126 14.8346
56 126 14.2353
57 126 13.666
58 126 13.1236
59 126 12.5628
60 126 12.0163
61 126 11.4495
62 126 10.9062
63 126 10.4901
64 126 10.187
65 126 9.96675
66 126 9.8054
67 126 9.68204
68 126 9.57763
69 126 9.48553
70 126 9.40013
71 126 9.31498
72 126 9.23821
73 126 9.14575
74 126 9.08402
75 126 8.98876
76 126 8.89179
77 126 8.77202
78 126 8.66637
79 126 8.62466
80 126 8.53777
81 126 8.36531
82 126 8.0255
83 126 7.56898
84 126 6.95558
85 126 6.17772
86 126 5.43016
87 126 4.65906
88 126 3.85124
89 126 2.9377
90 126 1.81567
91 126 0.358862
92 126 -2.15541
93 126 -7.87593
94 126 -24.4522
95 126 -24.4522
96 126 -24.4522
97 126 -24.4522
98 126 -24.4522
99 126 -24.4522
100 126 -24.4522
101 126 -24.4522
102 126 -24.4522
103 126 -24.4522
104 126 -24.4522
105 126 -24.4522
106 126 -24.4522
107 126 -24.4522
108 126 -24.4522
109 126 -24.4522
110 126 -24.4522
111 126 -24.4522
112 126 -24.4522
113 126 -24.4522
114 126 -24.4522
115 126 -24.4522
116 126 -24.4522
117 126 -24.4522
118 126 -24.4522
119 126 -24.4522
0 127 -24.4522
1 127 -24.4522
2 127 -24.4522
3 127 -24.4522
4 127 -24.4522
5 127 -24.4522
6 127 -24.4522
7 127 -24.4522
8 127 -24.4522
9 127 -24.4522
10 127 -24.4522
11 127 -24.4522
12 127 -24.4522
13 127 -24.4522
14 127 -24.4522
15 127 -24.4522
16 127 -24.4522
17 127 -24.4522
18 127 -24.4522
19 127 -24.4522
20 127 -24.4522
21 127 -24.4522
22 127 -24.4522
23 127 -24.4522
24 127 -24.4522
25 127 -24.4522
26 127 -24.4522
27 127 -24.4522
28 127 -24.4522
29 127 -24.4522
30 127 -24.4522
31 127 -24.4522
32 127 1.75809
33 127 2.47665
34 127 6.19052
35 127 9.30713
36 127 11.4421
37 127 13.0766
38 127 14.2673
39 127 15.2446
40 127 15.9993
41 127 16.476
42 127 16.8366
43 127 17.1305
44 127 17.3999
45 127 17.6065
46 127 17.7671
47 127 17.8724
48 127 17.9358
49 127 17.8835
50 127 17.714
51 127 17.3837
52 127 16.9666
53 127 16.4668
54 127 15.9137
55 127 15.2925
56 127 14.711
57 127 14.1448
58 127 13.5895
59 127 13.0443
60 127 12.4688
61 127 11.8895
62 127 11.3022
63 127 10.8737
64 127 10.5717
65 127 10.3296
66 127 10.1542
67 127 10.0682
68 127 9.99625
69 127 9.91948
70 127 9.87555
71 127 9.81959
72 127 9.77015
73 127 9.72231
74 127 9.67266
75 127 9.64133
76 127 9.59624
77 127 9.54226
78 127 9.52321
79 127 9.47187
80 127 9.40233
81 127 9.23511
82 127 8.90685
83 127 8.47926
84 127 7.88609
85 127 7.14514
86 127 6.26178
87 127 5.43345
88 127 4.57448
89 127 3.60994
90 127 2.4633
91 127 1.08918
92 127 -1.12896
93 127 -6.31863
94 127 -24.4522
95 127 -24.4522
96 127 -24.4522
97 127 -24.4522
98 127 -24.4522
99 127 -24.4522
100 127 -24.4522
101 127 -24.4522
102 127 -24.4522
103 127 -24.4522
104 127 -24.4522
105 127 -24.4522
106 127 -24.4522
107 127 -24.4522
108 127 -24.4522
109 127 -24.4522
110 127 -24.4522
111 127 -24.4522
112 127 -24.4522
113 127 -24.4522
114 127 -24.4522
115 127 -24.4522
116 127 -24.4522
117 127 -24.4522
118 127 -24.4522
119 127 -24.4522
0 128 -24.4522
1 128 -24.4522
2 128 -24.4522
3 128 -24.4522
4 128 -24.4522
5 128 -24.4522
6 128 -24.4522
7 128 -24.4522
8 128 -24.4522
9 128 -24.4522
10 128 -24.4522
11 128 -24.4522
12 128 -24.4522
13 128 -24.4522
14 128 -24.4522
15 128 -24.4522
16 128 -24.4522
17 128 -24.4522
18 128 -24.4522
19 128 -24.4522
20 128 -24.4522
21 128 -24.4522
22 128 -24.4522
23 128 -24.4522
24 128 -24.4522
25 128 -24.4522
26 128 -24.4522
27 128 -2.1667
28 128 -1.08843
29 128 -0.674735
30 128 -0.0590082
31 128 0.718522
32 128 1.39045
33 128 4.26833
34 128 7.48404
35 128 10.241
36 128 12.2997
37 128 13.7378
38 128 14.8047
39 128 15.6477
40 128 16.287
41 128 16.679
42 128 16.961
43 128 17.2267
44 128 17.4757
45 128 17.6884
46 128 17.8466
47 128 17.9703
48 128 18.0621
49 128 18.047
50 128 17.88
51 128 17.6194
52 128 17.2368
53 128 16.7651
54 128 16.2203
55 128 15.6529
56 128 15.0932
57 128 14.551
58 128 14.0101
59 128 13.4504
60 128 12.885
61 128 12.2964
62 128 11.6817
63 128 11.2314
64 128 10.9173
65 128 10.6837
66 128 10.542
67 128 10.4707
68 128 10.4418
69 128 10.388
70 128 10.3494
71 128 10.3093
72 128 10.2993
73 128 10.284
74 128 10.2775
75 128 10.285
76 128 10.2939
77 128 10.284
78 128 10.2775
79 128 10.2507
80 128 10.2012
81 128 10.0755
82 128 9.84911
83 128 9.45358
84 128 8.89437
85 128 8.17142
86 128 7.27885
87 128 6.2888
88 128 5.31518
89 128 4.28635
90 128 3.05935
91 128 1.61841
92 128 -0.745083
93 128 -6.24587
94 128 -24.4522
95 128 -24.4522
96 128 -24.4522
97 128 -24.4522
98 128 -24.4522
99 128 -24.4522
100 128 -24.4522
101 128 -24.4522
102 128 -24.4522
103 128 -24.4522
104 128 -24.4522
105 128 -24.4522
106 128 -24.4522
107 128 -24.4522
108 128 -24.4522
109 128 -24.4522
110 128 -24.4522
111 128 -24.4522
112 128 -24.4522
113 128 -24.4522
114 128 -24.4522
115 128 -24.4522
116 128 -24.4522
117 128 -24.4522
118 128 -24.4522
119 128 -24.4522
0 129 -24.4522
1 129 -24.4522
2 129 -24.4522
3 129 -24.4522
4 129 -24.4522
5 129 -24.4522
6 129 -24.4522
7 129 -24.4522
8 129 -24.4522
9 129 -24.4522
10 129 -24.4522
11 129 -24.4522
12 129 -24.4522
13 129 -24.4522
14 129 -24.4522
15 129 -24.4522
16 129 -24.4522
17 129 -24.4522
18 129 -24.4522
19 129 -24.4522
20 129 -24.4522
21 129 -24.4522
22 129 -24.4522
23 129 -24.4522
24 129 -24.4522
25 129 -24.4522
26 129 -1.42386
27 129 0.160695
28 129 0.755737
29 129 1.3025
30 129 2.04369
31 129 2.1845
32 129 2.57489
33 129 5.48417
34 129 8.35563
35 129 10.9161
36 129 12.8447
37 129 14.1028
38 129 15.0722
39 129 15.8295
40 129 16.4173
41 129 16.7561
42 129 16.9917
43 129 17.2444
44 129 17.4813
45 129 17.6526
46 129 17.8087
47 129 17.9465
48 129 18.0591
49 129 18.0505
50 129 17.9261
51 129 17.6917
52 129 17.3604
53 129 16.9029
54 129 16.4093
55 129 15.8941
56 129 15.3724
57 129 14.8702
58 129 14.3318
59 129 13.7861
60 129 13.2456
61 129 12.6503
62 129 12.0412
63 129 11.585
64 129 11.2597
65 129 11.0413
66 129 10.8994
67 129 10.8579
68 129 10.848
69 129 10.8401
70 129 10.8135
71 129 10.8067
72 129 10.8158
73 129 10.8453
74 129 10.8825
75 129 10.9265
76 129 10.9717
77 129 10.9862
78 129 10.9844
79 129 10.9777
80 129 10.9299
81 129 10.8415
82 129 10.6581
83 129 10.3246
84 129 9.87482
85 129 9.25379
86 129 8.43411
87 129 7.426
88 129 6.26807
89 129 5.0007
90 129 3.71803
91 129 2.15365
92 129 -0.289322
93 129 -6.40267
94 129 -24.4522
95 129 -24.4522
96 129 -24.4522
97 129 -24.4522
98 129 -24.4522
99 129 -24.4522
100 129 -24.4522
101 129 -24.4522
102 129 -24.4522
103 129 -24.4522
104 129 -24.4522
105 129 -24.4522
106 129 -24.4522
107 129 -24.4522
108 129 -24.4522
109 129 -24.4522
110 129 -24.4522
111 129 -24.4522
112 129 -24.4522
113 129 -24.4522
114 129 -24.4522
115 129 -24.4522
116 129 -24.4522
117 129 -24.4522
118 129 -24.4522
119 129 -24.4522
0 130 -24.4522
1 130 -24.4522
2 130 -24.4522
3 130 -24.4522
4 130 -24.4522
5 130 -24.4522
6 130 -24.4522
7 130 -24.4522
8 130 -24.4522
9 130 -24.4522
10 130 -24.4522
11 130 -24.4522
12 130 -24.4522
13 130 -24.4522
14 130 -24.4522
15 130 -24.4522
16 130 -24.4522
17 130 -24.4522
18 130 -24.4522
19 130 -24.4522
20 130 -24.4522
21 130 -24.4522
22 130 -24.4522
23 130 -24.4522
24 130 -24.4522
25 130 -1.65161
26 130 0.458331
27 130 1.42877
28 130 1.93118
29 130 2.40901
30 130 2.74056
31 130 2.54431
32 130 3.52031
33 130 6.37448
34 130 8.91058
35 130 11.3027
36 130 13.0077
37 130 14.1601
38 130 15.1018
39 130 15.8296
40 130 16.386
41 130 16.6661
42 130 16.9047
43 130 17.1368
44 130 17.3592
45 130 17.5574
46 130 17.6949
47 130 17.8254
48 130 17.9266
49 130 17.9517
50 130 17.8236
51 130 17.626
52 130 17.3346
53 130 16.9595
54 130 16.5029
55 130 16.0422
56 130 15.5689
57 130 15.0714
58 130 14.5791
59 130 14.0571
60 130 13.5191
61 130 12.9383
62 130 12.3427
63 130 11.8839
64 130 11.562
65 130 11.3365
66 130 11.2247
67 130 11.2174
68 130 11.2304
69 130 11.2421
70 130 11.253
71 130 11.2876
72 130 11.3101
73 130 11.3651
74 130 11.4715
75 130 11.53
76 130 11.5846
77 130 11.6382
78 130 11.6507
79 130 11.6323
80 130 11.605
81 130 11.5359
82 130 11.3904
83 130 11.109
84 130 10.7217
85 130 10.1938
86 130 9.50995
87 130 8.66777
88 130 7.52805
89 130 5.96189
90 130 4.53159
91 130 3.00558
92 130 0.322578
93 130 -6.69272
94 130 -24.4522
95 130 -24.4522
96 130 -24.4522
97 130 -24.4522
98 130 -24.4522
99 130 -24.4522
100 130 -24.4522
101 130 -24.4522
102 130 -24.4522
103 130 -24.4522
104 130 -24.4522
105 130 -24.4522
106 130 -24.4522
107 130 -24.4522
108 130 -24.4522
109 130 -24.4522
110 130 -24.4522
111 130 -24.4522
112 130 -24.4522
113 130 -24.4522
114 130 -24.4522
115 130 -24.4522
116 130 -24.4522
117 130 -24.4522
118 130 -24.4522
119 130 -24.4522
0 131 -24.4522
1 131 -24.4522
2 131 -24.4522
3 131 -24.4522
4 131 -24.4522
5 131 -24.4522
6 131 -24.4522
7 131 -24.4522
8 131 -24.4522
9 131 -24.4522
10 131 -24.4522
11 131 -24.4522
12 131 -24.4522
13 131 -24.4522
14 131 -24.4522
15 131 -24.4522
16 131 -24.4522
17 131 -24.4522
18 131 -24.4522
19 131 -24.4522
20 131 -24.4522
21 131 -24.4522
22 131 -24.4522
23 131 -24.4522
24 131 -1.82554
25 131 0.606823
26 131 1.7742
27 131 2.43605
28 131 2.82324
29 131 3.07536
30 131 3.18868
31 131 3.11819
32 131 4.23119
33 131 6.85928
34 131 9.15684
35 131 11.4193
36 131 12.8896
37 131 13.9841
38 131 14.9134
39 131 15.6031
40 131 16.1371
41 131 16.449
42 131 16.7078
43 131 16.9356
44 131 17.1517
45 131 17.3362
46 131 17.4977
47 131 17.6054
48 131 17.6973
49 131 17.7041
50 131 17.6216
51 131 17.48
52 131 17.2569
53 131 16.9781
54 131 16.5711
55 131 16.1344
56 131 15.6804
57 131 15.213
58 131 14.7463
59 131 14.2585
60 131 13.744
61 131 13.1823
62 131 12.594
63 131 12.166
64 131 11.823
65 131 11.624
66 131 11.5285
67 131 11.5441
68 131 11.571
69 131 11.6132
70 131 11.6508
71 131 11.7277
72 131 11.798
73 131 11.9019
74 131 12.0028
75 131 12.105
76 131 12.1823
77 131 12.2608
78 131 12.2877
79 131 12.2992
80 131 12.2689
81 131 12.1974
82 131 12.0659
83 131 11.8374
84 131 11.5227
85 131 11.052
86 131 10.4641
87 131 9.73221
88 131 8.87603
89 131 7.46964
90 131 5.50128
91 131 4.22732
92 131 1.99216
93 131 -5.96933
94 131 -24.4522
95 131 -24.4522
96 131 -24.4522
97 131 -24.4522
98 131 -24.4522
99 131 -24.4522
100 131 -24.4522
101 131 -24.4522
102 131 -24.4522
103 131 -24.4522
104 131 -24.4522
105 131 -24.4522
106 131 -24.4522
107 131 -24.4522
108 131 -24.4522
109 131 -24.4522
110 131 -24.4522
111 131 -24.4522
112 131 -24.4522
113 131 -24.4522
114 131 -24.4522
115 131 -24.4522
116 131 -24.4522
117 131 -24.4522
118 131 -24.4522
119 131 -24.4522
0 132 -24.4522
1 132 -24.4522
2 132 -24.4522
3 132 -24.4522
4 132 -24.4522
5 132 -24.4522
6 132 -24.4522
7 132 -24.4522
8 132 -24.4522
9 132 -24.4522
10 132 -24.4522
11 132 -24.4522
12 132 -24.4522
13 132 -24.4522
14 132 -24.4522
15 132 -24.4522
16 132 -24.4522
17 132 -24.4522
18 132 -24.4522
19 132 -24.4522
